ply
format ascii 1.0
element vertex 712
property float x
property float y
property float z
property uchar red
property uchar green
property uchar blue
end_header
1.3098517262253289 0.22785794325225456 5.095469278692952 94 74 86
0.8509912191462581 0.34455601781366907 5.763668827645618 75 58 77
-0.5223183309154459 0.42880400332267704 7.13757578780763 130 77 87
0.6204952781038329 1.019850400628323 6.004091123544538 69 36 43
-3.2171390625002876 -0.673341674592424 11.916044670070221 63 51 65
-0.8649539012698586 0.38573077950025225 7.470848528091834 98 79 72
-0.27486890712459977 -2.6314307871008173 7.758346491240774 67 43 57
0.6467677448664966 0.5764772656522144 6.059711072141625 127 119 143
-2.6577483364086696 0.7026408513931921 10.942011974092159 62 52 63
-0.21429114594084128 -0.019568721232655257 6.996246345281135 62 27 33
-3.318668292330975 -4.419054003406843 12.462969187210785 92 68 84
0.27661703262755477 -1.5235604814037529 6.836894117798356 97 65 78
-0.4547850423441622 0.9672144718404422 6.6048814397187945 78 47 62
0.9973885648463737 1.2830097511244019 5.433888455667335 70 52 64
-0.04245502396851351 -2.4730178445014666 7.3883386849754356 93 67 80
0.7714813777291867 -0.1492292663974641 5.932646668694216 72 51 58
-3.0650960501510967 -2.9535929375764858 11.922160822837384 89 66 94
-0.019802339043492302 -2.3072260395247075 7.376426262937481 80 58 71
-1.0465789928540694 -0.6030330894229883 8.009914463394567 109 63 73
-0.9408346041294264 -0.2503648159411153 7.790600962451492 77 40 48
-1.9793936813866713 -3.5331373608912418 10.380457361093283 84 56 79
1.1027814318736198 -1.8828421919222116 5.656225800393449 69 48 67
0.9578966059033625 -1.1585521119657713 5.813262549997745 125 115 139
-0.08227634681478553 0.8418114642438244 6.0757198245579405 66 33 44
0.4312906893895815 -2.1960574521085494 6.670487426445034 72 53 75
-2.6520956034042524 -0.4625020246237184 11.041257428656584 57 42 65
0.42973903493212723 -1.2884139841592392 6.552110237279037 78 54 67
1.2566917374940099 -1.6990131110385633 5.401420724178592 85 62 78
-0.762965942092065 0.40152232476496863 7.334815907480078 112 91 90
-0.9018584225179302 0.38974167909238794 7.437981606882793 174 162 148
1.0581118403549632 -1.502003452921895 5.6772845283245355 111 103 127
-2.2129831677787037 -0.73643171154522 10.438892284758314 70 52 66
1.2663212190835502 -1.2630743752190017 5.3213622319330405 98 71 86
0.2660239382435061 -1.1558697489681897 6.800270412444812 144 117 134
0.8357401659432984 -1.1801077721736313 5.977029467771361 84 58 71
-2.6847600870060866 -1.6221528641883884 11.225102594767025 77 56 71
1.2663212190835502 -1.2630743752190017 5.3213622319330405 98 71 86
1.1501079109499175 -0.9730127280152769 5.507414029873786 84 61 71
1.3738794926510143 -1.2089730831966425 5.1618712735654055 79 60 79
-2.6163659944457 -3.1228108700287462 11.277258251503682 75 55 67
0.7709628066371688 0.5540937089387984 5.852543950361711 130 121 140
-0.9742986632370649 -0.007264935818456676 7.684187395041238 205 194 174
-2.972691630793944 -2.9359862569521153 11.76558784477848 88 64 88
1.4805485393802988 -0.9501551896073638 5.002847211748246 66 42 58
0.696989008959582 -0.014265986855884311 6.011861940165781 78 55 65
0.7130294411332948 -0.4625044871034699 6.078767263699959 119 104 127
-0.7157794474433334 0.6963063671243008 7.206914377509166 155 103 116
-3.3760003115911528 -2.9526083023143097 12.373590990463306 89 63 76
1.3278970317809424 -1.884117347931927 5.336286050380818 72 59 85
1.3857393988254152 1.5285395270831716 4.616815116806606 63 63 65
-1.546976087991545 0.908701191870294 8.359594955747038 104 57 67
0.6266087708998777 -0.9052471282035671 6.256441656012421 63 50 67
1.2273225108809733 -1.8880980994830594 5.484520301928089 86 65 84
0.40353222101881303 -1.123910740769194 6.598381604576277 85 59 70
0.21973381282638196 -2.439284565299449 7.004743168670188 125 116 143
-0.7725422723978175 0.4449392061750221 7.317239814671267 49 23 34
-0.5682539790829745 -2.767657866478541 7.999380091147872 112 145 154
-1.027261061744628 -2.8105577409915616 8.898465958341461 77 59 75
-3.519865034657979 -0.6500752117558417 12.33571420014303 60 46 61
1.0779116191242497 -1.885195368243124 5.708838657624956 50 39 56
0.7507214844966613 1.635659263877201 5.518507429578899 105 121 136
0.8237415644551908 -1.3272316978276308 5.999824409129611 85 62 78
1.1873304629379766 -0.9315972367952136 5.408933180837545 67 44 62
-0.09013008267176581 0.09638030611031519 6.770778773995394 73 37 47
-0.19367726161936416 0.8842108261008962 6.228979791236828 64 33 41
0.8514899635978076 -1.3577681341669983 5.966155673719665 123 104 123
0.8272311753371715 -0.18268873777103162 5.8666479721084634 74 58 71
-0.7496507181674518 0.440975222835865 7.323620711026628 132 118 109
-3.085516313566926 -1.4893137829852858 11.798439920510953 68 48 60
-1.1537536169489984 -0.4605590902094226 8.119895523521642 117 64 74
0.8442704845736374 -1.3948674762828126 5.984314959627061 68 55 65
-0.6582568630993383 -2.5728180429745677 8.136336906152756 16 34 48
0.5052272649288587 -2.253982619808903 6.55864106071204 100 75 97
0.8357401659432984 -1.1801077721736313 5.977029467771361 84 58 71
0.9786832660087619 -0.9284633881391328 5.720728925934662 128 107 124
0.9813712377087864 -1.3591195830981206 5.770451709618372 56 43 61
0.9143949919128501 0.17774578703392085 5.713205044345862 76 53 73
0.20090274613435927 -1.608718884642694 6.913449990069897 115 104 118
-0.33756076337706065 -2.829821595656028 7.874411051987024 94 66 88
0.2604091397889222 -1.134264140638239 6.818082507003224 87 61 74
1.2572840726207297 0.479265950909562 5.143661553102015 138 118 129
1.2798069017732026 -1.1849969698222074 5.304581649062201 62 48 65
1.0087992026538055 -0.48488565795845906 5.638909000670473 135 118 137
0.8144313435593412 -1.4004109703565772 6.028881330873095 60 42 54
-3.0920900908889837 -2.6243040247954887 11.93694263362394 56 39 58
-0.6538583769703351 -2.6947668100982876 8.147321368268292 136 154 200
0.28252841164038306 -2.443272182526939 6.930129154159209 83 58 80
0.5229005224019065 -0.8645009701995455 6.386942937587185 132 120 144
-3.025303897732281 1.1805682123693129 11.403962940225826 111 120 153
-0.9360978731674044 0.4125096869335994 7.431317888080453 161 153 142
1.3097931345789633 -0.08390462463037313 5.152252625224561 65 49 60
0.5767399869337381 -2.1007055823284504 6.455276928689016 91 64 83
0.05847959086231459 -1.6539913960504216 7.149618443512235 139 119 146
0.25318589905721306 -1.6682915751778717 6.881564669487177 73 56 72
0.21393090804099926 -1.8813128740175038 6.96071967008678 98 67 83
0.44785263834497585 -0.8446132300357266 6.467095890070293 78 63 82
1.0705249725952588 0.7619363179837377 5.393764322331441 71 54 70
0.8887521385403735 0.9422931543566571 5.623558228445096 140 124 151
0.4836899915328954 -0.6635059641231961 6.434501172330949 81 59 72
0.257463503785248 -2.44514052601241 6.961539059906699 67 41 66
-3.2094264538343675 -2.3863491757407864 12.059444707673924 76 61 82
0.9085644273454963 0.4055363666860346 5.66614865994602 149 127 139
-2.2625349981854677 -1.1886999399391152 10.555686873383108 74 58 68
0.9362888665815962 1.3141936286716285 5.529646666345325 131 112 134
0.8201926259951975 -2.090330051302274 6.094564802351957 70 55 74
-2.604568046416707 -2.7898830944805915 11.247171568593338 69 54 73
-0.5432629605743329 0.5415441843677802 7.154944935221016 62 22 31
0.9845718232844165 -0.4848468967269899 5.679393570901546 136 125 142
0.8115247786051178 0.7410724509830162 5.777341700224199 64 51 69
0.7290924841113201 -0.890399336451605 6.103292658539948 125 116 133
0.07622684634610258 -1.4750054589203212 7.108707644084693 130 112 134
0.6772006327386285 -1.5366615325402335 6.232230270591914 78 55 65
0.4769382452292591 -0.8752495108501024 6.462271026645674 68 50 64
-0.642107270154157 0.8416393317328634 6.901498112615994 65 33 46
0.8210626457165069 -0.27379622871116993 5.921569431395393 48 43 49
0.8389273824865101 0.7325135480784344 5.7601290886722625 113 108 131
1.1515312282211962 -0.9506234580489881 5.464600519126729 114 102 122
1.299954745785727 1.4143858602575117 4.763668208509357 162 181 250
1.2732191306203746 1.537634080763047 4.801738371827832 100 84 95
-2.2845203898990545 -2.1401680123036413 10.648168107252946 73 56 64
0.586815977163232 0.7170106440814598 6.091948410510731 60 38 51
-2.523511518236084 -3.2470998943329112 11.165548950967562 74 56 72
0.783525114538441 0.5496011782514116 5.828889574032433 133 126 144
-3.258248317167044 -2.3908912738171013 12.129514854531422 75 58 76
0.8166742564592552 0.9092629525291482 5.707108248788554 68 52 65
-0.10760059982897456 -2.1185350208532525 7.46426380143328 95 62 79
-0.29862329848354746 -0.4703987408649307 7.188316865914091 94 69 90
-1.2513135064921992 -2.835782366133254 9.231335920525034 84 61 77
1.0424980852496741 -1.5160778957145928 5.669587465863458 126 113 139
0.7956375695219736 -0.9152391204495213 6.009698965312391 73 56 72
-0.30500675143363026 0.09142259104558782 7.122578141164986 60 24 34
-1.4742200807763806 -2.820855041341897 9.545556368640757 129 114 135
-2.127759436112729 0.7539456966160353 9.407489026107267 68 35 44
0.8258024824019732 -1.3121931762641357 5.992959894854206 135 115 140
0.6772006327386285 -1.5366615325402335 6.232230270591914 78 55 65
-2.2549427220147065 -2.598914092183942 10.705097965265375 70 52 64
-2.0418069355328274 -2.56649743504982 10.37454272138103 71 55 68
-1.5334316772806804 -3.337799365456757 9.70026329340386 76 52 78
-0.9043376282686381 -0.7053501063814134 7.797399993463149 48 20 19
-2.5857160355507744 -2.395932353759289 11.137319583129402 88 58 68
-0.9346032281062043 0.3757249903327755 7.444590246356777 110 98 108
0.8155263401488639 -1.363278278274553 6.024561594999933 85 61 75
0.46945722099208514 -2.209113102245826 6.609270823746079 96 67 87
-3.0694933201725583 -1.1599100400332811 11.740876005358428 61 45 56
0.5873308180705641 0.5853577440917437 6.138527383004573 127 117 144
-0.704642526384176 -2.7623301737797723 8.226557801228127 164 147 129
0.22229924854216074 -1.781465645842243 6.928988017585045 95 64 82
0.6194683035016081 1.5323915213294925 5.787504218174782 55 53 67
-2.546981241199901 -0.22061346642352644 10.867016076467197 65 49 75
-0.7903014051494871 -2.711623073891277 8.36185286162638 146 148 173
-0.8982052424926074 1.0024515335816986 7.237323591013507 75 41 55
-0.7104877598807013 -2.823116406112305 8.237375859524022 205 190 167
-0.903943470315908 0.4080362618814486 7.415315587344716 51 38 48
0.8142171482672577 -0.500335879840918 5.9594856794639535 68 47 56
-1.0113762900260488 0.8983486033624428 7.411156017440602 76 40 52
0.28252841164038306 -2.443272182526939 6.930129154159209 83 58 80
0.5413561952756341 -0.45726904529610224 6.304166595267514 141 120 139
-0.09013008267176581 0.09638030611031519 6.770778773995394 73 37 47
0.9818037663525744 -1.373973589091338 5.765179102521939 129 112 131
-2.5094844579556628 -2.3852809843198988 11.045440076456037 74 51 67
-3.1028451636963164 -2.933619290907395 11.977621668314665 74 60 77
-2.18592866816404 -3.569733973227159 10.699336465444484 80 56 72
-2.9618026300541835 -2.6220703526838514 11.767468967641175 73 59 74
0.01200657645089475 -1.6316040977058193 7.154420284409179 62 31 36
0.7779106789586936 0.5787750441875708 5.830675552406453 137 115 127
-0.7237829976644928 0.2875726379687366 7.48245865430832 125 113 99
0.8756986334091109 -1.8827691951675305 6.00109909506162 78 56 69
-1.1745915616681057 -1.7389796963640682 8.00859315583888 135 84 93
-1.0228400681797285 -0.6396894387226029 7.9595670331038155 49 23 24
-1.153833924154578 -0.45892553440441336 8.12164035588013 118 65 75
1.0823349731894787 0.17842450792040304 5.459302878920473 71 56 75
0.6623696483202665 -1.5326841227943313 6.27093954004155 85 61 75
-0.49516345185757976 -2.630755552312949 8.037384609159373 102 84 108
0.11839903647676031 1.0224499364280875 5.637832304243357 83 47 47
-2.1607043083496253 -3.133146729846005 10.61175722437498 80 58 71
-0.4547850423441622 0.9672144718404422 6.6048814397187945 78 47 62
0.31519185119221826 -0.8717037463995385 6.696681890753288 84 53 71
0.8792702517355644 0.7540112229724109 5.671262395417957 126 122 147
1.272756832753689 -0.9957703475277506 5.299260804820237 95 69 94
-0.9052258192721658 -0.35180874190758693 7.741264711730298 131 115 92
-2.553530156842045 -0.45256315846650674 10.925625103693223 120 103 122
-0.6771836719661407 -2.5742122092678104 8.169169230056129 62 84 97
1.0597407689273672 -1.4839946235460668 5.6659382253548864 59 46 64
36.069096782606856 -64.88159337906885 -471.849896235644 56 24 35
-0.33756076337706065 -2.829821595656028 7.874411051987024 94 66 88
-1.240970343696257 0.644083745194765 8.168133297332437 126 76 87
-1.4404992344047831 -2.784353761575936 9.495230750268052 82 58 71
1.0779116191242497 -1.885195368243124 5.708838657624956 50 39 56
-1.1652941382830444 -3.2818531727898836 9.156064164797636 77 53 75
0.769562565126383 -1.1500375765496882 6.065955727687675 129 117 137
0.7855474211304168 1.342169950551418 5.762818489697673 99 90 107
-1.2555718809129361 -3.179394011881553 9.273094746463961 59 42 60
0.7508931793383 0.8008851716874474 5.88416783860978 113 108 130
1.3602476073707936 -0.2989214727252203 5.073672912306746 136 115 134
0.5801431170241677 -0.2640430421097232 6.24588398811337 81 53 68
0.8469887748511477 -0.0329727407216599 5.811798550993406 81 59 82
-0.5442803840938546 0.8024825142633971 6.752393503253942 60 39 48
-0.44951890162534713 0.8056349024362146 6.607295279475974 127 83 100
0.8798223266412017 -0.5258619095460846 5.846294968084342 57 41 52
1.258025388375619 -0.3039813359992975 5.244811919798638 109 90 109
0.04828644379919452 -2.117875009647695 7.246544632051959 95 72 92
0.2615770230147111 -0.655167906955744 6.766538876617661 88 59 77
-1.972487494674859 -2.721328342369319 10.280292681352808 73 55 77
-0.14439122380356265 0.7401669524865229 6.140108128944619 63 48 55
-0.5857738116604306 -0.17174660609484532 7.293345815404981 51 29 31
-1.0314195497581466 0.2598292455743066 7.598956604480117 180 177 186
-0.0736946190823023 0.17959725519411152 6.733083414575526 123 71 83
-0.5809881035927078 -2.849163845223653 8.027791049059145 164 143 126
-0.4615804390469889 -2.6412506499229713 8.004508191256114 56 39 57
-0.3130345825095032 0.8051766537311288 6.416483417112397 75 34 48
-1.4388556211252541 -3.2388201018830647 9.541846280984347 75 54 71
-4.300813422577774 0.956324583213709 13.256856931792292 54 60 96
-1.2767591306220998 0.22671463614175547 8.261130146129162 60 27 34
0.8997757678809643 -0.910547269993096 5.8489073565160306 68 55 75
-3.0920900908889837 -2.6243040247954887 11.93694263362394 56 39 58
0.7350400135701919 0.779368673041657 5.8972883961723905 63 46 64
-1.2696164310221676 -0.14787885513628363 8.242467379136121 101 76 95
-0.2689821318977856 -2.2332122125229246 7.702262172983229 95 71 95
-0.6449168110019178 -2.6642346213118797 8.12434300070978 135 119 129
0.2285827244585769 0.09769303925169849 6.096175692283402 47 18 20
-0.8739848020123935 0.18266575004900512 7.711416498179654 75 52 38
0.8068898824413161 0.5370643609803774 5.824049932845424 122 105 124
0.8470030785002332 -0.29079187850134425 5.881490062289466 51 36 41
0.8037393620561452 -0.9760205550530878 5.99308810707196 67 44 60
-0.08950301633513419 -2.6359546065116093 7.503803888295562 132 114 136
0.7130583890221425 -2.1020445025589356 6.240473105689987 117 105 119
-3.3497934947010477 -3.918284675373073 12.470368905169416 84 66 88
0.7392870409461676 1.1582642402741157 5.855836236929807 72 58 84
-4.281030046031725 -2.8341650610540237 13.584175460394329 32 46 95
-0.5472550744622451 0.023294927490595085 7.208456319001485 63 23 34
0.9289259188291848 -1.646714272814012 5.893382106596557 70 53 72
-0.27222008800750314 -2.502354195049752 7.740288360500424 133 116 135
0.6172781678772168 -0.011704253369890914 6.159256811773694 64 50 63
-0.10461197934354789 -0.17521003080324793 6.860106141520475 58 26 37
0.8766327777303315 0.19157415010681378 5.7533406581618625 75 52 68
-1.225496066023483 0.010238043732532606 8.217684864769515 67 29 40
0.7130583890221425 -2.1020445025589356 6.240473105689987 117 105 119
-0.6887100810219076 0.769494264885526 7.106354234846973 113 60 70
-0.06332226857402386 -1.9580329046726315 7.370674429599431 102 71 86
0.7989114576835764 -1.3279370963309514 6.048249002727584 75 53 66
-0.972681558797805 0.2905796920871061 7.497056186282703 191 182 165
1.2566280743586635 -0.4166634779054693 5.243927025639678 84 60 76
1.1177764057247015 1.2685645370641059 5.2274988934759685 70 58 72
0.17221281120529536 -2.446788338002343 7.08875419220476 139 124 145
-0.5946541027441669 0.5461180204608294 7.230430368607276 67 24 31
0.7966859913926038 -0.40189255271331387 5.925579529141276 81 60 75
1.2991268069304212 -0.07307479833427052 5.175894313272701 131 109 130
1.0014929250229434 -0.2910698442112549 5.632197060203415 63 50 60
-0.949957271124645 0.34194231736960323 7.486385766385017 214 210 198
-2.4465989070778726 -0.22655884213902877 10.728660335999697 57 41 52
-2.664654432219923 -1.7833198360453433 11.202493672853675 58 44 61
-1.0851640460916436 -0.7130797362516132 8.062357639672477 120 69 84
0.8255086105273068 -0.13663835320402626 5.870206145691593 58 44 61
-2.4253116504515124 -3.384593943475155 11.03275574798459 63 49 64
1.0346378192298211 -1.9722330687222347 5.760513499909086 80 59 76
1.194249908437687 1.0240550446131704 5.203284905101281 66 49 59
-1.7077087911532738 0.42906260605040686 9.155034569146515 52 25 32
0.8643824041699801 0.9615402248559506 5.683506049627953 124 122 144
-2.9346378239152213 -0.9536856142983154 11.540765543266701 64 50 65
-1.546976087991545 0.908701191870294 8.359594955747038 104 57 67
0.8247010077016874 0.7164463725945529 5.777052478366398 130 127 148
0.7752883261779868 -1.3273699289236924 6.040696290333103 86 65 74
-0.7463521152925627 0.41664619233293165 7.318423110556612 169 162 156
-2.405639497196187 -0.4924142828807088 10.693671470662268 60 42 58
-0.0012088027590856087 -1.8707067234719634 7.275143242610989 95 67 89
1.3720138693108552 1.4986103498717354 4.636920140543619 13 19 33
1.0536871444053868 -1.4048870134572857 5.664948206177149 121 116 136
0.10638062418113367 0.449490396542427 6.48917861778939 59 26 35
-0.5983794272390311 -2.853217694412398 8.055503929451776 185 178 159
-1.7785767379742041 -2.5656279396804713 9.962980318291368 82 62 74
-0.842035836851163 -0.6937017758025245 7.698875220633752 45 19 20
1.2635823479421233 -0.290318038069622 5.258507620203744 61 45 58
-2.0593548063571916 -1.5921567928483324 10.256456886839281 72 58 71
0.9378336380945025 -1.4858376521304517 5.842005134377194 79 54 75
-0.5899624416058559 -2.611042841842292 8.018980242755758 207 200 184
-1.5544585394561716 -0.21389365248377526 8.931408849136798 69 28 32
0.9409773143586723 -1.7056086520650693 5.864893260378289 101 73 88
-0.08464413288468611 -0.21055309862793536 6.834633637119706 63 28 35
-2.664654432219923 -1.7833198360453433 11.202493672853675 58 44 61
-0.5696599988430601 0.5481200746081202 7.192117727010569 126 76 87
-1.4476523972851512 -2.707869087290492 9.50441901291951 85 63 84
-0.06704219393759542 0.14401441932136422 6.744228030698798 66 30 34
-1.7832940626517515 0.44206798227629646 9.27342677206077 51 22 27
-2.490102010683278 -1.5976328080692386 10.966303802616709 62 45 55
0.29100320140237873 0.0516666527493504 6.044554644570062 62 27 31
-0.842035836851163 -0.6937017758025245 7.698875220633752 45 19 20
-1.8217353305822435 -3.3563112950837235 10.146644730027688 64 48 61
-2.093463700407161 -1.5807380830468296 10.32345078496638 131 114 133
-0.2797309994493897 0.060588373882375555 7.115609598118009 56 25 31
-1.153833924154578 -0.45892553440441336 8.12164035588013 126 68 80
-0.1068547046536735 0.9058490599835095 6.084663924453673 82 44 59
0.8231033567864119 -0.2164831047136079 5.878784121430759 70 51 71
0.13819788616231127 0.825060268502341 5.755312764328075 76 34 44
-0.6849361498235943 0.5165302754554538 7.3293681022274955 70 30 30
-2.9258834960095776 0.42083456005287956 11.374324517395674 68 54 71
-0.33629765908492626 -2.6797071620277575 7.860302128949741 69 55 80
0.18741218368059237 0.27625745277652486 6.381851583394973 55 22 29
-0.13464305553673184 -1.143583254397369 6.616782173108289 161 110 127
1.0714568244935425 0.1960937210304276 5.484453482678671 130 111 130
0.819515755375351 -0.06924209122389376 5.870212454124887 66 47 67
-0.7275282967090277 0.8525256878950097 6.991496910018974 47 30 38
1.270523236957722 -0.09410059335655702 5.240070522637131 62 54 67
-1.2694541420821328 0.6473533632046625 8.21363498089101 64 24 32
-0.8094496828276093 0.4280404781787741 7.376033852812203 103 78 81
-0.27633332288644047 -2.6261646713873477 7.742720823883191 71 47 61
-1.7067465374664932 -3.251260448524373 9.956732681705763 73 53 78
0.5259973686615427 0.4037173081985722 6.237257504400201 121 99 120
0.8030814708986939 1.1064513669931866 5.770505823574952 60 42 64
0.7303269025522492 0.5356182023852879 5.93013096482196 85 61 77
-0.8991768202454445 -0.7418529661077176 8.221537485238454 42 17 21
0.5052272649288587 -2.253982619808903 6.55864106071204 100 75 97
1.277896207983917 -1.5850317428973746 5.3680653276577734 61 49 71
0.5813886763878434 -2.064083674437493 6.455778664313282 72 51 68
-1.1680280448633689 -0.10176919502054232 8.126706263265692 57 21 31
-0.6639055692415322 -2.769062174826726 8.165196622193614 126 133 179
-0.20733468622869858 0.4760087072976089 6.941453924335551 69 26 33
0.1378702815002169 -0.13836697129327605 6.007866237994517 60 23 30
0.9599906060329462 0.5805150119589804 5.553854436296196 39 52 131
-2.961070251927409 -2.901594509378461 11.751040641171885 129 119 143
-1.1946658147592668 -0.15927829304017424 8.157249153335403 49 20 24
0.18844773660038114 0.3980617921463844 6.139537206201016 60 38 50
-3.5762742453642344 -1.4657281011913488 12.513133939806417 82 61 80
-0.07982652193333874 -1.8656226881833395 7.388707679276041 134 115 137
0.9560133850679312 -1.1705127418738994 5.812544287484335 52 45 63
-0.5472550744622451 0.023294927490595085 7.208456319001485 63 23 34
-0.6879916539495724 -2.659239063571564 8.175476731487455 13 27 40
-0.5792197496789043 -0.004958801079671658 7.243550721007501 144 97 107
-0.1068547046536735 0.9058490599835095 6.084663924453673 82 44 59
-0.9043376282686381 -0.7053501063814134 7.797399993463149 48 20 19
-2.9618026300541835 -2.6220703526838514 11.767468967641175 73 59 74
-0.05368893232982853 -0.064493454156803 6.722034483985401 56 28 40
-0.001272739983202609 -1.5685154918286617 7.170414236493967 37 21 24
-0.7316286226055568 -2.836137714773933 8.273715257034763 172 151 134
-2.081471484381474 -0.06794053460118896 9.482099775212006 146 107 125
-1.5294674238177242 -3.3825884973177 9.682901311781398 78 60 82
0.8165156943135055 -0.9679889437811938 5.975841545173601 137 113 126
0.8884456813845687 0.3325170851130407 5.730304717040988 81 60 79
-0.2931180526849588 0.7862973512099521 6.395078318799643 72 42 52
1.2580254522910537 -1.6525274097253257 5.41310030823466 50 37 55
-0.7986384415699324 0.1396358076826794 7.6854392494321555 108 92 77
0.7175783020068321 -1.6563010829080276 6.206390398009107 72 54 68
1.931505821610324 0.18559829477238082 5.220195419797794 34 30 63
-1.2694541420821328 0.6473533632046625 8.21363498089101 64 24 32
0.30718837659834086 -1.6396172482605802 6.805726870741342 92 64 78
-0.13913352606639434 -0.10704778922753641 6.87524090297526 139 91 107
1.5151368635012508 -0.8022413507585802 4.9852512007030185 138 117 136
-0.38873589821825066 -2.8764025398628013 7.96833857061964 86 57 87
0.3817474172266157 0.7385840114493578 5.861712653226312 68 34 50
-0.4802414490403188 0.9291746883037639 6.628160845616138 63 32 40
1.0570075296817307 -1.4276571914310008 5.681397539458542 77 58 78
-0.5366003668414522 -2.747897716024935 7.977793314548685 157 145 129
1.1821582532280923 1.005818401769993 5.200262035961035 121 104 120
2.1643244973132574 0.32249247131755104 5.078879267435907 118 126 172
-1.100866955573843 0.9071193759791045 7.508443854469514 85 47 58
0.926192318793338 -2.078577776471573 5.939190258365745 72 58 83
1.2391419687032617 0.6912142893251236 5.161463200024387 92 65 82
0.40046810380100273 0.7655348863252341 5.89134460365085 59 31 45
0.6620994362103995 1.3640231432672836 5.932636042041617 113 99 125
-0.3413799978928385 -2.7946069939704423 7.900259682058601 132 114 138
0.7084310972856803 -1.1257989350039141 6.165584438428172 127 109 121
0.8990350647705501 0.9768545365796566 5.611047929993326 86 62 75
-2.5101846917223156 -3.593026153377728 11.174973456279881 84 63 82
1.2513752885080207 -0.102873497312809 5.225833797872565 67 46 63
-0.2864719694984031 0.47143274235878 7.043540294749808 60 25 31
-0.5796826989733818 0.01368725477601058 7.2480994028999275 87 40 50
1.0424980852496741 -1.5160778957145928 5.669587465863458 126 113 139
-1.8097280860256642 -3.7481401985229876 10.160312278959509 67 49 71
-2.160918364047343 -2.9554161880345746 10.591458990704652 81 60 79
0.7416379285239977 -2.104170878024921 6.2076201936692 78 57 76
-0.9190579233251999 -0.057604119857516796 7.7882413347560995 141 121 88
-1.2719062390148588 -3.0353673653091633 9.281557494403714 85 57 79
-0.6989709500974285 -2.5573838652036347 8.207159116238806 49 33 44
-1.076924259547253 -0.529875268054621 8.05432573396823 108 66 80
-0.5410166847226416 0.4224599138759028 7.163798018906473 63 20 30
0.7081089438692402 -1.1870404304531386 6.179575492278196 60 47 57
0.9002137684748478 -1.5428605644189506 5.937393989620197 83 58 77
0.8935919885634473 -1.3305632240457659 5.9222297681718565 67 40 57
-0.5804003522565995 -2.629515696863824 8.016005797250333 120 117 146
-0.09444314274736007 -2.4742216859621644 7.493516335672245 59 42 58
-0.20605536311875133 1.0954531680688977 6.103404631632571 36 16 15
0.9704072953823404 -1.3165092177741218 5.763950257619953 61 49 63
0.31292569605849346 -1.1683705702285956 6.722418376327339 134 110 126
1.1930085485516706 0.5005595125406611 5.256387736380536 123 110 130
0.7991324492961618 -1.8662673920548214 6.102045461400566 80 54 79
0.0005632769613053751 0.7576149924359475 5.952808895952221 133 87 100
0.6970926953964454 -2.298040646087918 6.315136032013328 61 44 63
-1.3623711727505838 -2.8484921458444616 9.4031738625357 81 61 72
-0.10931316749598981 0.08887655987618516 6.786308776041521 138 86 99
0.8981692973419945 -0.5006074019926045 5.81533661702934 72 50 63
1.1550619693480988 0.7027042095799537 5.30194640809622 68 47 62
0.8698280745067446 0.20363499074873004 5.774034651684195 124 120 137
-3.12045969696831 -1.2490576704360756 11.81866226487254 73 55 71
-0.15669321550389156 1.4001249171597483 9.883635044532294 68 34 48
-0.10461197934354789 -0.17521003080324793 6.860106141520475 58 26 37
1.4969858870405786 0.27080866073330256 4.8633830389358215 131 113 129
0.2353259884857672 -2.3026749920658576 6.977863199426697 86 58 80
1.2667624486101603 0.17055030363137647 5.181767867484846 141 131 155
-1.0025973225153926 -0.09063141190761047 7.736431559698522 198 187 167
0.7252507132649273 -1.1771811432328991 6.12100265170034 120 98 111
-0.2931180526849588 0.7862973512099521 6.395078318799643 72 42 52
0.013338530264200798 -0.5397836018375303 6.520079310204473 157 110 128
0.4955906436649083 -2.0851893298308 6.558165595209497 133 108 129
-0.575169033810895 0.39645403288266245 7.193979858922869 151 99 112
-1.053468610391235 -0.56766346503457 8.037205673581237 52 23 25
0.5015455482184145 -1.3093067989814815 6.472959776306832 88 64 77
0.10638062418113367 0.449490396542427 6.48917861778939 59 26 35
1.0752885866465087 0.1951713951930987 5.450383705722946 148 127 142
-0.7357230566071524 -2.5414945548603547 8.266993445052481 162 150 124
0.8466425168613665 0.7124133152239303 5.753383513628409 68 49 55
0.6890034073439296 -0.23809957599138562 6.079450671196397 143 126 145
-1.0861606034162103 0.8814828239459891 7.525747940733743 125 136 181
-1.2152954609739117 -0.182625247357555 8.154709262060765 99 72 91
-0.5484415490031002 -2.7940591827467687 7.9989775598668995 177 162 143
1.046287397109225 -2.0652749604898237 5.758002864722379 128 110 134
-0.37891157813251874 0.7945218117580372 6.486276780160044 63 38 44
-0.8127606905120699 -2.6998384710753496 8.387350923964298 188 191 200
0.8115247786051178 0.7410724509830162 5.777341700224199 64 51 69
1.2949820820889189 0.14694037315043454 5.1392299944538955 132 115 131
-1.309420027716748 -0.14472385943374594 8.289377850473494 54 23 29
-0.7622576788478822 0.3700915914745762 7.4331128240324595 193 186 180
-0.9667478686327261 -0.6875001409419995 7.890646310862864 47 21 22
-0.16002104824744626 -2.6292061235738897 7.598481488406079 93 61 82
-2.8711567789746373 1.1662616653854037 11.170613472495047 94 93 127
1.540732718197962 -0.33763664268455124 4.98810659401207 72 49 75
-0.943265096772156 -0.30448769533799125 7.819458450270669 48 22 23
0.17052594230823087 0.7030852270799817 5.705643670726584 69 38 44
-0.37601653565697585 0.7443488912858405 6.889140541215729 70 50 59
0.6715570963677475 -2.301467847220673 6.349998744356278 91 65 90
0.6232097374823004 -0.023985124804827757 6.162199968059418 48 36 48
0.1131888957317017 0.7132388789777723 5.784686229799733 134 90 107
0.7429877486646571 -0.8924191666498378 6.091577765225957 68 51 70
0.7711406883803669 1.116369437121675 5.828820247941234 118 120 143
-0.36802090661508036 0.4800857843625116 3.7535349315798405 64 38 49
-0.699918422115175 -2.854989600162145 8.227212453050662 140 138 162
-0.3050243696273723 -0.4432289652030591 7.169302119721488 55 29 30
-1.081165396009507 0.36994944929069945 7.572822114906275 25 15 14
-0.9130073966754628 0.0422929261521106 7.625158958377381 88 69 63
-1.2345378596745853 -2.736053621781376 9.190036040171234 124 117 135
1.4800006071694203 -0.5495483257432278 4.9593104556156895 60 43 59
-1.8898332752905058 -3.114749511657538 10.216203455966482 73 50 70
-0.08960375875528875 -1.883184098988601 7.418527517474778 79 55 77
0.45706891144327505 -2.099848370707223 6.6279470600464805 102 71 86
-0.9498224836072657 0.038460658719491655 7.643771585527157 214 204 179
-0.8982052424926074 1.0024515335816986 7.237323591013507 75 41 55
-0.6842628616857523 0.8675510747727515 6.934503928426102 131 88 105
0.7333591996377193 0.19575092369450078 5.965327664453859 89 62 79
-1.0170524845269369 -1.7579449014194457 7.771201427821558 78 39 44
-0.5954737589863172 -2.914863160916757 8.025782088748839 161 152 135
0.8401837778847875 -1.875701174630866 6.055023077873924 58 41 59
-2.261029991023181 -2.964320339888502 10.733710314065629 73 52 67
-2.4536579417135944 -1.2834904536904994 10.828643432052258 51 37 54
-0.28572741762429893 0.2471219769466787 7.06542324063774 63 20 27
0.8766327777303315 0.19157415010681378 5.7533406581618625 75 52 68
-2.7090827364812236 -0.6935551117825299 11.14751885027204 57 46 62
2.133276751974569 -0.21609463220528866 5.210370768014462 160 175 218
-1.7077087911532738 0.42906260605040686 9.155034569146515 52 25 32
0.8625740832829007 -1.3905915668704059 5.949222130822399 120 103 122
0.866839291228894 -0.5460631468478913 5.854656365859743 123 99 121
0.8195731141610437 1.3669134338116808 5.706751921027241 63 47 58
1.6411618682543956 -0.3289560808636789 5.093193206337435 61 39 62
-0.7065162034888107 -2.871727252059692 8.224875544686023 87 86 120
-0.6658072883650047 -2.8867014410797522 8.15799897824962 56 42 65
-0.6206616012082832 -2.8261478760299794 8.094212222146217 164 155 138
-1.972487494674859 -2.721328342369319 10.280292681352808 73 55 77
-0.7550692929309567 -2.8292647964606976 8.318561651972493 116 95 92
-1.251410447927032 0.084262145648353 8.230943619848047 84 39 46
-0.6264555013830605 -2.7739894496755 8.095164546803522 129 113 116
0.8534656140909175 0.17611658660238477 5.807107388995732 74 58 69
-0.8095716196963014 0.16302230320185432 7.693094436167731 77 59 47
0.8736027323551004 1.3182367348936732 5.661079607489768 50 32 44
0.25826001423885303 -0.8807977555716262 6.788656250760656 77 50 59
-0.6185099750485166 -2.5899535998635037 8.073713984296413 137 126 104
-0.03990640409501395 -2.623194072685328 7.43707083302587 92 66 91
-0.578510913964942 -2.7332044143240535 8.00458949834014 78 72 74
-0.09444314274736007 -2.4742216859621644 7.493516335672245 59 42 58
-0.1027587665863978 -2.7469451331963834 7.533616405864999 70 51 70
0.8163234738529107 -0.9104744549054933 5.9722668920910955 70 56 81
-0.6958162430387038 -2.51081335055468 8.180239748968265 152 136 120
1.2628185788779491 -1.2983820274595634 5.334003635554097 93 66 85
-1.6134948316992976 0.11102054301191651 9.074094718536598 51 20 26
0.36686403897125275 -1.8773715385040328 6.737348033354813 74 52 73
-0.16509039249097948 0.07611261900689258 6.8677041243647565 99 49 58
-0.6958162430387038 -2.51081335055468 8.180239748968265 152 136 120
0.2803791806420848 0.6863182909564838 5.755510120246841 41 30 34
-0.5858664957369577 -2.724916905849622 8.031902235612913 79 79 107
-2.555553153260064 -0.47634953697399696 10.902690711448201 61 43 55
0.14381065821283678 0.693193314457685 5.741483169594526 51 40 44
-0.7840892710618873 -0.04064231425992398 7.605520118004583 176 164 138
-1.0169941036736758 0.22415520387997623 7.679761824727936 76 40 40
-0.17640178955807165 -0.2944153839778696 6.835308906851234 55 24 30
-0.8030071486557826 0.4399901253244057 7.3473269350946255 141 131 132
1.0597407689273672 -1.4839946235460668 5.6659382253548864 59 46 64
-1.1886394920379577 0.5232115080235104 8.106207304991196 118 71 79
0.8126500749861876 -2.0588332971474004 6.116238167922635 82 69 97
0.7160532402994496 -1.1638546818625335 6.1826556861842885 82 72 81
-0.908892283350737 0.3586330386830108 7.457350991561817 127 107 96
-0.28572741762429893 0.2471219769466787 7.06542324063774 63 20 27
-0.7253754203279639 -2.7421443348053542 8.260487896448819 154 142 162
1.1688108363408836 1.3108277718668664 5.1788233917663655 72 54 70
-0.7146288819567478 -2.580875538209754 8.216057190455683 73 110 116
-0.604278145980707 -2.80781226071516 8.051656348537021 71 55 66
-0.47418136414524814 0.6317417998488952 6.940699988172969 156 105 122
-1.0299516684123284 0.28987310279534984 7.528474397372309 120 111 114
0.5937370197318023 -2.303675358660754 6.463920642179131 92 66 77
-1.1537536169489984 -0.4605590902094226 8.119895523521642 126 68 80
-0.5730212308237862 0.41725564985617186 7.207036190955078 96 43 51
0.30594889966501054 -0.4357109213315004 6.648682007636809 75 52 62
-0.09013008267176581 0.09638030611031519 6.770778773995394 73 37 47
0.3221024314329485 -2.1127971749097276 6.842606468204604 95 70 91
-0.8046990873763231 -0.0017556470821293699 7.587540460500247 82 58 46
1.6296333318411846 0.5000446829961755 4.956061058831507 63 48 69
2.173755519027746 0.4042144566193385 4.981187962225427 120 130 179
0.38830530648804595 -1.882301187691351 6.71578246040993 87 60 75
1.1688108363408836 1.3108277718668664 5.1788233917663655 72 54 70
0.24659922861536385 -1.7454016869326703 6.8880787821194644 85 67 89
0.04921263541356218 0.6643258684221145 6.097779875394117 86 56 56
0.91216594559029 -0.05254661224579699 5.745981695395282 84 63 78
0.7507214844966613 1.635659263877201 5.518507429578899 105 121 136
0.6000183816845726 1.471409279437663 5.934944527223864 131 116 137
-0.9346940375504489 0.37548552121007556 7.434801495041482 117 104 113
0.8846415447871501 -0.6069900823491201 5.829186013479932 79 56 72
0.42394688843155004 -2.2107235347213816 6.679830479490586 130 114 140
0.3436934744085189 -1.3384367146218936 6.690421031193973 72 52 77
0.19522020842229965 -1.6339766815855903 6.967045696001918 70 53 72
-0.13464305553673184 -1.143583254397369 6.616782173108289 161 110 127
-0.864548112559146 0.20829499889308403 7.6785432139396415 171 154 124
-0.6630208290188996 -2.928751060209831 8.166900455914266 47 34 54
-0.9951272984631578 -0.02820328503425428 7.700821099119857 195 188 170
-1.0893004275106826 0.33279439933411487 7.5390275170516325 174 171 178
1.4284914279691703 0.0735123701095083 4.937314422287923 134 111 129
0.8428804731775682 -2.060811481679645 6.049913876448076 80 62 86
-2.1108952068238462 -2.1258800212841784 10.431037336764975 75 51 64
-0.8902231988209701 0.32201426848658593 7.498193218160541 129 111 101
-2.2416342370457234 0.03358812666523457 9.500201995556447 144 90 113
-0.6851476287863639 -2.768457258321724 8.208506290300143 149 132 125
-0.7476668173991202 -2.7350616625920963 8.30148030999009 170 156 182
-0.0952993182319949 0.39612820330931514 6.794719619095829 60 24 28
1.0630127574018489 1.272576331408261 5.3292136318990195 52 36 47
-0.8102529048051094 -2.5094908356935135 8.509956705003425 61 44 60
1.4776396067975552 -3.105497191616638 -22.173965058107065 84 47 64
1.03994461289775 -1.3860635534411796 5.686838193456508 67 56 70
0.31281849452490407 -1.1486288159836389 6.763461416462949 92 62 72
-0.7867740055590399 0.390342624317763 7.344121042123423 169 151 147
-0.01859214542613774 0.755992512323632 5.981791730855162 71 40 48
-0.7157006546756133 0.6638823421394819 7.2377962627468015 155 103 115
0.6917414205539486 -2.1122391131889495 6.301240752764751 123 114 135
-0.8488723108123898 0.36887184262470996 7.478021148137364 100 82 82
-0.6560184922399123 -2.777488274060384 8.14229097568012 71 71 109
1.255293096853115 -1.6305451868323981 5.404688105158123 123 109 135
-0.7986384415699324 0.1396358076826794 7.6854392494321555 108 92 77
-0.6194847149583483 -2.682241900393639 8.081678091789955 75 64 104
0.87552162170938 -2.153584525913874 6.011159348582202 93 67 94
0.909278727337349 -1.6988736083409834 5.916276199561329 85 64 81
-0.6560184922399123 -2.777488274060384 8.14229097568012 71 71 109
-1.236612325730554 -2.7031595318567287 9.166542516570969 50 39 56
0.7658009040185384 -1.1900810699571254 6.060418768311059 135 112 128
-0.6573805572532907 -2.8000242733411653 8.156106567342686 154 145 136
1.7553277378780903 -0.07003730866549215 5.185386121933114 45 29 42
-0.061948998900728816 -2.751386073134705 7.47202622357277 78 63 82
-2.6265008204525064 -0.7079893901935823 11.013716863729462 62 48 61
1.537437976593122 0.3325536274759564 4.8585111963974015 101 79 100
2.173755519027746 0.4042144566193385 4.981187962225427 120 130 179
1.1557366073625241 0.4578065956571643 5.3098251980387685 88 62 71
-1.573437549372119 0.3232035808020996 8.79478676922033 86 36 47
0.20158351658476506 -1.6183633232833727 6.959033582964065 122 110 124
-0.2823248650607018 -0.5566835711246368 7.157755874423123 78 42 44
1.0470533729482563 -1.8732985956930224 5.741979162810686 75 57 79
-0.2553625818786883 0.7324802948687066 6.775198852672021 100 58 62
1.0615049244918158 1.2972508216709435 5.34459050899137 102 98 123
2.1643244973132574 0.32249247131755104 5.078879267435907 118 126 172
-0.668614395047643 -2.8461567231911262 8.191705450267568 73 61 73
-1.494155106966519 0.22511712067719022 8.830527197435108 84 41 50
0.17967249957209905 0.46537986528189845 6.168164234023882 79 30 34
-0.2553625818786883 0.7324802948687066 6.775198852672021 100 58 62
-0.6107164549833085 -2.6906212342520206 8.079838845646679 135 144 185
-0.7107595577127405 0.43972525440037546 7.353446612335414 167 156 136
-0.8046287152753842 -2.8193896863714256 8.389606149539738 136 79 94
-0.6155873818002814 -2.5084010333874147 8.199119149350249 34 25 28
0.22222795583773639 -1.1641023305348182 6.862581164426305 98 65 74
-0.9987952927655002 -0.04642159456627924 7.710563801829909 211 203 184
1.5356338378681922 -0.24690446240423 4.929003528085833 90 65 84
1.7084043817992807 1.3410217320489095 4.798266050228994 137 125 145
0.28544535049804404 -2.1522185367519007 6.883492702827923 81 63 89
-0.38502004893173464 -0.3661438041105795 7.179887738007244 48 20 19
0.9414145335705699 0.5471589558511858 5.560065581417823 70 110 206
0.9772593307450699 -0.9151004711928595 5.71602329608477 69 53 66
-2.1923115073472594 -1.299354646443496 10.490388772366716 73 55 69
1.270523236957722 -0.09410059335655702 5.240070522637131 62 54 67
-0.8455593748067448 0.38459275661950654 7.4668748877054245 158 149 134
-0.9899136210307223 -2.7962776760047685 8.846138676282722 83 54 74
0.3490242917043352 -1.082739445285066 6.6629753783591505 133 120 138
-1.5560696385605155 0.10436430130179618 8.93046993173073 52 26 35
-0.9219776312257194 -0.4174877740889411 7.769207027697232 117 98 81
-0.7754128451096924 -2.8239937069243863 8.343845395417853 178 168 143
0.8643647373977741 -0.9112971413456603 5.893954573135338 55 34 51
0.7449290660998209 -2.292686487324011 6.241661680707832 76 57 77
1.0949731969118917 -2.09066803791184 5.7023403588791455 67 50 68
1.5548569020267389 -0.5790330973500124 5.019428876957752 49 32 38
2.16060657105004 0.2866155647080021 5.081704410908012 120 134 179
-0.7622576788478822 0.3700915914745762 7.4331128240324595 193 186 180
0.13819788616231127 0.825060268502341 5.755312764328075 76 34 44
-0.8334232088934815 -2.8306086924959435 8.427070051270585 193 181 165
-0.9190579233251999 -0.057604119857516796 7.7882413347560995 141 121 88
0.7209925198672035 -2.2210847194481356 6.256701722953165 80 54 79
0.9338081936970288 0.350320869767282 5.66498272148719 139 116 134
1.642510548477874 -0.5299237624969577 5.121192703169918 58 39 59
0.9772593307450699 -0.9151004711928595 5.71602329608477 69 53 66
-0.020187379832550298 -0.04156055530460288 6.7107528627648 54 27 34
-1.0759345585657527 0.8580467198371395 7.493348073885156 67 60 104
0.8185026585552179 1.2935085755995477 5.667717927987796 62 46 57
1.5661580653719156 -0.09169779364172409 4.9900086781678 79 56 82
-0.3094130069482207 -0.15369679480761364 7.150385083930079 63 30 41
-2.0914628423557313 -0.9845956207447281 10.255069215761571 70 47 67
-0.834516830417451 0.41522373503940446 7.414616338897524 96 72 72
-0.953410888041181 -0.3729307659637647 7.81930874666867 140 126 113
0.749784877078485 -0.7003045226736885 6.081899915817083 113 112 128
-2.151568292282806 -0.5016600990005875 10.313091216142391 75 54 63
0.8522363310204001 -1.7077612704595102 5.9728126034893645 86 59 78
-0.19202168024767619 -1.0730592065353328 6.678820729359457 55 23 24
-2.151568292282806 -0.5016600990005875 10.313091216142391 75 54 63
-1.2594293393614124 -2.7254080350165077 9.196418125273897 43 39 62
0.11210376004030735 -1.6423015319750431 7.07953860767282 89 66 84
-0.7600926546191392 -0.6218269225567261 7.591873970950575 102 61 67
-0.11982132210538987 0.06952797404437996 6.8258341797328095 84 42 52
0.882081486823353 0.984669212302749 5.658330215634156 84 63 78
0.1965136727725502 -2.4202270400722194 7.034655900318823 87 65 88
-1.0955416241983633 0.39457453178827184 7.5532680053758705 137 133 130
0.09863541189071723 -2.104236568585485 7.143101307708862 79 55 77
-1.2529736351222824 1.0411381929792323 7.73732221637278 79 42 59
-1.3182253065357505 0.5388364510920746 8.288291019183147 63 23 32
-1.6457262285644607 0.1420414814788503 9.106102984128778 56 26 34
1.6139909155558967 0.19102900860804858 4.973462960175039 124 101 121
-0.6779068679420014 -2.8197109455461127 8.184409273997966 184 168 152
-1.0306279414090407 0.46672028497864876 7.659100072701606 31 20 16
-1.6776666510713716 -1.5108828884280632 8.7054025250231 126 98 112
1.6355487621693248 -0.3735780265350174 5.088587253983577 83 63 75
0.8166742564592552 0.9092629525291482 5.707108248788554 68 52 65
-0.8476615932562083 -2.517181999582276 8.578533766219794 77 48 68
-1.2699651154901666 0.3132370657728884 8.257897656749908 63 30 37
-0.29862329848354746 -0.4703987408649307 7.188316865914091 94 69 90
1.5292152359020208 0.22730836457044165 4.892640882948834 62 39 49
1.7294034539936274 -0.0735140544635813 5.160946306393152 57 40 58
-2.3044249322467003 0.05064230788242045 9.557417962955048 72 30 32
0.7529361676287094 -1.1538598267192173 6.100156522521252 120 107 124
1.494143633374507 -0.5075280394499639 4.953458566488178 93 68 90
0.7967819810640336 -0.07817341170900727 5.884659099317752 130 108 129
-2.2486266646852062 -0.018660287742559206 9.57608890903337 72 28 27
0.007451355536623947 0.780129602919669 5.96804057980543 57 38 44
-2.301206474609385 0.07860365685601028 9.519058213529616 147 96 113
-0.21573610623092446 -2.631141182930711 7.676364882786324 91 63 85
-0.7336390042654152 -2.6359609991736472 8.246531120039092 28 51 59
1.0876400642491872 -0.023126086414587174 5.4544043397508535 45 31 48
1.580517204042283 0.38244754690082355 4.910745314385781 121 97 113
-5.572234426966507 -3.4644752115961106 15.240469633253573 167 184 236
-0.8455969418866479 0.38423656356198566 7.464828704902138 163 154 139
1.5428241284592836 0.07309318865719573 4.915963270114854 50 37 44
-0.11758690076575887 -2.733595778602789 7.54774595118509 123 105 127
-0.6197912720468899 -2.621530947867855 8.089719661746047 146 133 125
-0.7730548748294969 -0.021740455911171803 7.616064800146616 162 150 124
-0.7466730954991486 -2.6353221779850635 8.288944707854125 52 37 44
-0.2066720670595008 0.15805725426105863 6.7833121918401735 97 45 57
0.5524842857736215 -2.3188955418603094 6.518365266271511 94 68 79
0.33445587954764133 -2.0798929817562075 6.808732549882752 144 126 150
-0.814032833873619 -0.03960326612329611 7.620861847785883 197 187 160
-0.6887427952401822 0.4765146013680409 7.352873201769596 63 34 38
-1.5641093184024384 -0.15855200797523405 8.864592977583865 53 21 24
-1.695393587662344 -1.3020795813193387 8.774316004434954 123 100 120
-0.29944045399061353 0.27508634372713375 7.108057928196752 59 23 33
-0.9182402003796233 -0.9044789370238097 7.840577261659772 60 30 28
1.0824352950762666 -0.037273596972716753 5.457387206365416 103 86 104
-1.3286227526406855 0.32843674658101946 8.330780237889114 68 26 38
-1.3182253065357505 0.5388364510920746 8.288291019183147 63 23 32
-0.8918574627547742 -1.7545391542271276 7.594424104445514 53 21 32
1.0652422705929134 0.8122318013709956 5.385751410812558 66 54 76
-1.236612325730554 -2.7031595318567287 9.166542516570969 50 39 56
1.494143633374507 -0.5075280394499639 4.953458566488178 93 68 90
0.7508931793383 0.8008851716874474 5.88416783860978 113 108 130
0.8056718094208987 -0.13346195720500414 5.879502042891354 117 100 118
1.5305450892812997 0.3477550010707663 4.855610018177957 139 117 130
1.5305450892812997 0.3477550010707663 4.855610018177957 139 117 130
-0.6045435156504132 -2.7743677271819527 8.088003307560184 173 159 133
-2.297891413930815 0.12281862544797977 9.509723574921608 66 25 33
-0.7365429840768014 -2.5696335036475975 8.253151853636195 32 32 44
1.6133843629398503 -0.7741506555832516 5.110049798113338 56 33 39
-1.295229658067363 -1.1355414527455312 8.097122819302852 126 80 93
-1.695393587662344 -1.3020795813193387 8.774316004434954 123 100 120
-0.9951272984631578 -0.02820328503425428 7.700821099119857 213 206 190
-0.9899136210307223 -2.7962776760047685 8.846138676282722 83 54 74
-1.1702495800835517 -3.3792037244293938 9.166962171809757 50 34 60
1.6386091004588477 -0.581144401647327 5.123988285461115 73 56 64
1.5108965540105421 -0.40603655555428975 4.9501708924035634 83 58 80
0.6549385030159132 -2.1109827989976524 6.324045551790111 144 120 136
-0.9161652292209027 -2.1522913538496597 8.190001393148242 133 110 130
-0.19202168024767619 -1.0730592065353328 6.678820729359457 55 23 24
-2.2486266646852062 -0.018660287742559206 9.57608890903337 72 28 27
0.5024077918823598 0.8431148527467649 5.984335426934098 74 37 54
0.33445587954764133 -2.0798929817562075 6.808732549882752 144 126 150
2.1241901524843256 -0.21900387806880436 5.235621914713392 118 129 175
0.8954337350035166 0.9912923946810422 5.620116295629938 120 106 123
-0.5779095094515259 -2.763997824950489 8.002397950779985 65 66 70
-1.5110481270759089 -3.0459977990663982 9.619561312375378 75 56 75
-0.9123039220684128 -3.036269099682479 8.754316840600929 91 64 83
0.11632164443137555 -1.1200341394601498 6.769208983626715 93 45 59
-0.626024518050005 -2.6389206182069564 8.100712217516605 81 72 63
2.189141008145359 0.3551084710387261 5.0393831557856865 114 120 170
-1.4662270136269648 0.0945958000213531 8.85058279424767 53 27 36
-1.5053356600493855 0.8591752739922528 6.474337523019563 79 37 51
1.8222697406248223 0.6288140686710892 5.118503600521574 74 62 86
-0.814032833873619 -0.03960326612329611 7.620861847785883 197 187 160
-0.8444995333262549 -3.08787400212228 8.676620617576818 91 61 71
0.8175514990724225 -1.8523249330043197 6.027134623463367 130 122 143
-0.830882262332828 -2.6825006311188124 8.417910847947491 79 72 80
